-2.799999713897705078e-01,1.600000262260437012e-01,2.800000011920928955e-01,2.602224794991319357e+01
-2.799999713897705078e-01,1.600000262260437012e-01,3.599999845027923584e-01,2.148785636811696165e+01
-2.799999713897705078e-01,1.600000262260437012e-01,4.399999678134918213e-01,9.704894033687276433e+00
-2.799999713897705078e-01,1.600000262260437012e-01,5.199999809265136719e-01,2.027526222172127301e+00
-2.799999713897705078e-01,1.600000262260437012e-01,6.000000238418579102e-01,3.280562301784443330e-02
-2.799999713897705078e-01,2.399999499320983887e-01,-1.999999880790710449e-01,8.873913842710472455e-01
-2.799999713897705078e-01,2.399999499320983887e-01,-1.199999973177909851e-01,1.379243282561993844e+01
-2.799999713897705078e-01,2.399999499320983887e-01,-3.999999910593032837e-02,3.968183430185586502e+01
-2.799999713897705078e-01,2.399999499320983887e-01,3.999999910593032837e-02,9.072257851425098352e+01
-2.799999713897705078e-01,2.399999499320983887e-01,1.199999973177909851e-01,1.052272876317432946e+02
-2.799999713897705078e-01,2.399999499320983887e-01,1.999999880790710449e-01,1.040795628655912424e+02
-2.799999713897705078e-01,2.399999499320983887e-01,2.800000011920928955e-01,9.590842612653705146e+01
-2.799999713897705078e-01,2.399999499320983887e-01,3.599999845027923584e-01,6.102002783125208651e+01
-2.799999713897705078e-01,2.399999499320983887e-01,4.399999678134918213e-01,3.326310727593426009e+01
-2.799999713897705078e-01,2.399999499320983887e-01,5.199999809265136719e-01,3.061415495500947159e+00
-2.799999713897705078e-01,2.399999499320983887e-01,6.000000238418579102e-01,5.173498103893040337e-03
-2.799999713897705078e-01,3.199999928474426270e-01,-1.999999880790710449e-01,3.158674491498216028e-03
-2.799999713897705078e-01,3.199999928474426270e-01,-1.199999973177909851e-01,4.761405897727413183e+00
-2.799999713897705078e-01,3.199999928474426270e-01,-3.999999910593032837e-02,3.965853306508669363e+01
-2.799999713897705078e-01,3.199999928474426270e-01,3.999999910593032837e-02,1.083132071564654666e+02
-2.799999713897705078e-01,3.199999928474426270e-01,1.199999973177909851e-01,1.591080254610410805e+02
-2.799999713897705078e-01,3.199999928474426270e-01,1.999999880790710449e-01,1.348055496236098918e+02
-2.799999713897705078e-01,3.199999928474426270e-01,2.800000011920928955e-01,1.192287654135966761e+02
-2.799999713897705078e-01,3.199999928474426270e-01,3.599999845027923584e-01,7.475671522500718424e+01
-2.799999713897705078e-01,3.199999928474426270e-01,4.399999678134918213e-01,1.925187491134996876e+01
-2.799999713897705078e-01,3.199999928474426270e-01,5.199999809265136719e-01,3.582650904655161894e-01
-2.799999713897705078e-01,4.000000357627868652e-01,-3.999999910593032837e-02,6.571293840784105278e+00
-2.799999713897705078e-01,4.000000357627868652e-01,3.999999910593032837e-02,3.637329671823908939e+01
-2.799999713897705078e-01,4.000000357627868652e-01,1.199999973177909851e-01,5.779185438829721022e+01
-2.799999713897705078e-01,4.000000357627868652e-01,1.999999880790710449e-01,5.672774033126724902e+01
-2.799999713897705078e-01,4.000000357627868652e-01,2.800000011920928955e-01,4.497866033580306322e+01
-2.799999713897705078e-01,4.000000357627868652e-01,3.599999845027923584e-01,1.882690339781398237e+01
-2.799999713897705078e-01,4.000000357627868652e-01,4.399999678134918213e-01,2.251635322182350407e-01
-2.799999713897705078e-01,4.799999594688415527e-01,3.999999910593032837e-02,3.374036891150961580e-03
-2.799999713897705078e-01,4.799999594688415527e-01,1.199999973177909851e-01,2.045879112730554228e-01
-2.799999713897705078e-01,4.799999594688415527e-01,1.999999880790710449e-01,3.538674903348056899e-01
-2.799999713897705078e-01,4.799999594688415527e-01,2.800000011920928955e-01,3.798124271003323893e-02
-1.999999880790710449e-01,-4.799999892711639404e-01,-3.999999910593032837e-02,1.372045868405153302e+00
-1.999999880790710449e-01,-4.799999892711639404e-01,3.999999910593032837e-02,2.533966354331663950e+01
-1.999999880790710449e-01,-4.799999892711639404e-01,1.199999973177909851e-01,7.535059260345786925e+01
-1.999999880790710449e-01,-4.799999892711639404e-01,1.999999880790710449e-01,6.449078804338616067e+01
-1.999999880790710449e-01,-4.799999892711639404e-01,2.800000011920928955e-01,3.332167113917619616e+01
-1.999999880790710449e-01,-4.799999892711639404e-01,3.599999845027923584e-01,6.758458347209434613e+00
-1.999999880790710449e-01,-4.799999892711639404e-01,4.399999678134918213e-01,3.523656850945840885e-02
-1.999999880790710449e-01,-3.999999761581420898e-01,-1.999999880790710449e-01,2.023667693534005052e-02
-1.999999880790710449e-01,-3.999999761581420898e-01,-1.199999973177909851e-01,6.532283775055121922e+00
-1.999999880790710449e-01,-3.999999761581420898e-01,-3.999999910593032837e-02,4.771944516823221960e+01
-1.999999880790710449e-01,-3.999999761581420898e-01,3.999999910593032837e-02,1.091542469158559214e+02
-1.999999880790710449e-01,-3.999999761581420898e-01,1.199999973177909851e-01,1.449482658954815406e+02
-1.999999880790710449e-01,-3.999999761581420898e-01,1.999999880790710449e-01,1.619151765004657477e+02
-1.999999880790710449e-01,-3.999999761581420898e-01,2.800000011920928955e-01,1.368817929693726683e+02
-1.999999880790710449e-01,-3.999999761581420898e-01,3.599999845027923584e-01,7.071905522977380087e+01
-1.999999880790710449e-01,-3.999999761581420898e-01,4.399999678134918213e-01,2.056638965258523299e+01
-1.999999880790710449e-01,-3.999999761581420898e-01,5.199999809265136719e-01,4.807424125318642827e-01
-1.999999880790710449e-01,-3.199999928474426270e-01,-1.999999880790710449e-01,3.160630685500328330e+00
-1.999999880790710449e-01,-3.199999928474426270e-01,-1.199999973177909851e-01,3.351732482703087612e+01
-1.999999880790710449e-01,-3.199999928474426270e-01,-3.999999910593032837e-02,8.050573997672029236e+01
-1.999999880790710449e-01,-3.199999928474426270e-01,3.999999910593032837e-02,1.163936449554621220e+02
-1.999999880790710449e-01,-3.199999928474426270e-01,1.199999973177909851e-01,1.460238255940686827e+02
-1.999999880790710449e-01,-3.199999928474426270e-01,1.999999880790710449e-01,1.666648995455494173e+02
-1.999999880790710449e-01,-3.199999928474426270e-01,2.800000011920928955e-01,1.436157578254840530e+02
-1.999999880790710449e-01,-3.199999928474426270e-01,3.599999845027923584e-01,9.872432504798373998e+01
-1.999999880790710449e-01,-3.199999928474426270e-01,4.399999678134918213e-01,5.528225696858015681e+01
-1.999999880790710449e-01,-3.199999928474426270e-01,5.199999809265136719e-01,9.646233467667885364e+00
-1.999999880790710449e-01,-3.199999928474426270e-01,6.000000238418579102e-01,6.763947314636767350e-02
-1.999999880790710449e-01,-2.400000095367431641e-01,-2.800000011920928955e-01,2.164532439175194667e-01
-1.999999880790710449e-01,-2.400000095367431641e-01,-1.999999880790710449e-01,6.206141260298295492e+00
-1.999999880790710449e-01,-2.400000095367431641e-01,-1.199999973177909851e-01,3.947384233142137333e+01
-1.999999880790710449e-01,-2.400000095367431641e-01,-3.999999910593032837e-02,7.445847394110433015e+01
-1.999999880790710449e-01,-2.400000095367431641e-01,3.999999910593032837e-02,8.600079182709856696e+01
-1.999999880790710449e-01,-2.400000095367431641e-01,1.199999973177909851e-01,8.570386636218466947e+01
-1.999999880790710449e-01,-2.400000095367431641e-01,1.999999880790710449e-01,1.035343840140432121e+02
-1.999999880790710449e-01,-2.400000095367431641e-01,2.800000011920928955e-01,8.752393495875669771e+01
-1.999999880790710449e-01,-2.400000095367431641e-01,3.599999845027923584e-01,7.099894116938855859e+01
-1.999999880790710449e-01,-2.400000095367431641e-01,4.399999678134918213e-01,4.610364589842242822e+01
-1.999999880790710449e-01,-2.400000095367431641e-01,5.199999809265136719e-01,1.535469181749862955e+01
-1.999999880790710449e-01,-2.400000095367431641e-01,6.000000238418579102e-01,1.304798488344561802e+00
-1.999999880790710449e-01,-1.600000262260437012e-01,-2.800000011920928955e-01,4.535666074811912640e-01
-1.999999880790710449e-01,-1.600000262260437012e-01,-1.999999880790710449e-01,3.919144955826799226e+00
-1.999999880790710449e-01,-1.600000262260437012e-01,-1.199999973177909851e-01,1.468914032404548919e+01
-1.999999880790710449e-01,-1.600000262260437012e-01,-3.999999910593032837e-02,2.275286094033452144e+01
-1.999999880790710449e-01,-1.600000262260437012e-01,3.999999910593032837e-02,2.725011369647148385e+01
-1.999999880790710449e-01,-1.600000262260437012e-01,1.199999973177909851e-01,2.962873918865885159e+01
-1.999999880790710449e-01,-1.600000262260437012e-01,1.999999880790710449e-01,3.381149963516384105e+01
-1.999999880790710449e-01,-1.600000262260437012e-01,2.800000011920928955e-01,2.936028236021195070e+01
-1.999999880790710449e-01,-1.600000262260437012e-01,3.599999845027923584e-01,2.949331562728839984e+01
-1.999999880790710449e-01,-1.600000262260437012e-01,4.399999678134918213e-01,1.754251363805441599e+01
-1.999999880790710449e-01,-1.600000262260437012e-01,5.199999809265136719e-01,8.012175556347457928e+00
-1.999999880790710449e-01,-1.600000262260437012e-01,6.000000238418579102e-01,1.207522106381194282e+00
-1.999999880790710449e-01,-1.600000262260437012e-01,6.800000071525573730e-01,3.307590002860536470e-04
-1.999999880790710449e-01,-7.999998331069946289e-02,-2.800000011920928955e-01,9.738854323769864652e-02
-1.999999880790710449e-01,-7.999998331069946289e-02,-1.999999880790710449e-01,9.468237128412749781e-01
-1.999999880790710449e-01,-7.999998331069946289e-02,-1.199999973177909851e-01,2.589255506125624606e+00
-1.999999880790710449e-01,-7.999998331069946289e-02,-3.999999910593032837e-02,2.954809981701496113e+00
-1.999999880790710449e-01,-7.999998331069946289e-02,3.999999910593032837e-02,3.900663980579964996e+00
-1.999999880790710449e-01,-7.999998331069946289e-02,1.199999973177909851e-01,3.559842066857512588e+00
-1.999999880790710449e-01,-7.999998331069946289e-02,1.999999880790710449e-01,3.772070776071760889e+00
-1.999999880790710449e-01,-7.999998331069946289e-02,2.800000011920928955e-01,4.539246557136120686e+00
-1.999999880790710449e-01,-7.999998331069946289e-02,3.599999845027923584e-01,4.932878518841973481e+00
-1.999999880790710449e-01,-7.999998331069946289e-02,4.399999678134918213e-01,3.137782381398204645e+00
-1.999999880790710449e-01,-7.999998331069946289e-02,5.199999809265136719e-01,1.727665993266386035e+00
-1.999999880790710449e-01,-7.999998331069946289e-02,6.000000238418579102e-01,2.571232061060367835e-01
-1.999999880790710449e-01,-7.999998331069946289e-02,6.800000071525573730e-01,1.009789361275862610e-03
-1.999999880790710449e-01,0.000000000000000000e+00,-3.599999845027923584e-01,0.000000000000000000e+00
-1.999999880790710449e-01,0.000000000000000000e+00,-2.800000011920928955e-01,2.011944515780410021e-03
-1.999999880790710449e-01,0.000000000000000000e+00,-1.999999880790710449e-01,1.112076129260203272e-02
-1.999999880790710449e-01,0.000000000000000000e+00,-1.199999973177909851e-01,2.905778664484704593e-02
-1.999999880790710449e-01,0.000000000000000000e+00,-3.999999910593032837e-02,3.639425753599825203e-02
-1.999999880790710449e-01,0.000000000000000000e+00,3.999999910593032837e-02,4.455791621104537858e-02
-1.999999880790710449e-01,0.000000000000000000e+00,1.199999973177909851e-01,4.564805018565362693e-02
-1.999999880790710449e-01,0.000000000000000000e+00,1.999999880790710449e-01,5.616868086015946310e-02
-1.999999880790710449e-01,0.000000000000000000e+00,2.800000011920928955e-01,5.477172090556329392e-02
-1.999999880790710449e-01,0.000000000000000000e+00,3.599999845027923584e-01,5.683991152383191525e-02
-1.999999880790710449e-01,0.000000000000000000e+00,4.399999678134918213e-01,4.383703626479769355e-02
-1.999999880790710449e-01,0.000000000000000000e+00,5.199999809265136719e-01,1.880769096575461360e-02
-1.999999880790710449e-01,0.000000000000000000e+00,6.000000238418579102e-01,3.718679768847551505e-03
-1.999999880790710449e-01,0.000000000000000000e+00,6.800000071525573730e-01,2.831661540357888025e-05
-1.999999880790710449e-01,7.999998331069946289e-02,-2.800000011920928955e-01,6.955469954888332529e-02
-1.999999880790710449e-01,7.999998331069946289e-02,-1.999999880790710449e-01,8.174547164998391402e-01
-1.999999880790710449e-01,7.999998331069946289e-02,-1.199999973177909851e-01,2.379207361891025663e+00
-1.999999880790710449e-01,7.999998331069946289e-02,-3.999999910593032837e-02,2.633696631261895682e+00
-1.999999880790710449e-01,7.999998331069946289e-02,3.999999910593032837e-02,3.550939212435720194e+00
-1.999999880790710449e-01,7.999998331069946289e-02,1.199999973177909851e-01,3.437062187009353398e+00
-1.999999880790710449e-01,7.999998331069946289e-02,1.999999880790710449e-01,3.998020534931478576e+00
-1.999999880790710449e-01,7.999998331069946289e-02,2.800000011920928955e-01,4.674919314125395964e+00
-1.999999880790710449e-01,7.999998331069946289e-02,3.599999845027923584e-01,4.268550274197657757e+00
-1.999999880790710449e-01,7.999998331069946289e-02,4.399999678134918213e-01,2.637014900285698626e+00
-1.999999880790710449e-01,7.999998331069946289e-02,5.199999809265136719e-01,1.296691572167970818e+00
-1.999999880790710449e-01,7.999998331069946289e-02,6.000000238418579102e-01,1.794305829862425927e-01
-1.999999880790710449e-01,7.999998331069946289e-02,6.800000071525573730e-01,8.162480541771033370e-04
-1.999999880790710449e-01,1.600000262260437012e-01,-2.800000011920928955e-01,3.502283767860195907e-01
-1.999999880790710449e-01,1.600000262260437012e-01,-1.999999880790710449e-01,3.369311766539119457e+00
-1.999999880790710449e-01,1.600000262260437012e-01,-1.199999973177909851e-01,1.354206933479058783e+01
-1.999999880790710449e-01,1.600000262260437012e-01,-3.999999910593032837e-02,2.263446698602962215e+01
-1.999999880790710449e-01,1.600000262260437012e-01,3.999999910593032837e-02,2.526310635131246940e+01
-1.999999880790710449e-01,1.600000262260437012e-01,1.199999973177909851e-01,2.581070194577738519e+01
-1.999999880790710449e-01,1.600000262260437012e-01,1.999999880790710449e-01,2.979505474156891154e+01
-1.999999880790710449e-01,1.600000262260437012e-01,2.800000011920928955e-01,3.108635916317619774e+01
-1.999999880790710449e-01,1.600000262260437012e-01,3.599999845027923584e-01,2.655532655648744012e+01
-1.999999880790710449e-01,1.600000262260437012e-01,4.399999678134918213e-01,1.874362660255593127e+01
-1.999999880790710449e-01,1.600000262260437012e-01,5.199999809265136719e-01,6.314792616404532488e+00
-1.999999880790710449e-01,1.600000262260437012e-01,6.000000238418579102e-01,1.324433491394991336e+00
-1.999999880790710449e-01,1.600000262260437012e-01,6.800000071525573730e-01,1.022967917525156254e-04
-1.999999880790710449e-01,2.399999499320983887e-01,-2.800000011920928955e-01,1.906103823059723812e-01
-1.999999880790710449e-01,2.399999499320983887e-01,-1.999999880790710449e-01,4.761508799400858472e+00
-1.999999880790710449e-01,2.399999499320983887e-01,-1.199999973177909851e-01,3.975700459419706334e+01
-1.999999880790710449e-01,2.399999499320983887e-01,-3.999999910593032837e-02,7.295787826046290547e+01
-1.999999880790710449e-01,2.399999499320983887e-01,3.999999910593032837e-02,8.109704522659458803e+01
-1.999999880790710449e-01,2.399999499320983887e-01,1.199999973177909851e-01,8.798968859575553836e+01
-1.999999880790710449e-01,2.399999499320983887e-01,1.999999880790710449e-01,1.169229876940526651e+02
-1.999999880790710449e-01,2.399999499320983887e-01,2.800000011920928955e-01,8.074486858845617121e+01
-1.999999880790710449e-01,2.399999499320983887e-01,3.599999845027923584e-01,7.707239795382480452e+01
-1.999999880790710449e-01,2.399999499320983887e-01,4.399999678134918213e-01,4.973014552038701908e+01
-1.999999880790710449e-01,2.399999499320983887e-01,5.199999809265136719e-01,1.707324068117181426e+01
-1.999999880790710449e-01,2.399999499320983887e-01,6.000000238418579102e-01,1.397007479465427471e+00
-1.999999880790710449e-01,3.199999928474426270e-01,-2.800000011920928955e-01,5.504535645880041659e-05
-1.999999880790710449e-01,3.199999928474426270e-01,-1.999999880790710449e-01,2.870425443729913262e+00
-1.999999880790710449e-01,3.199999928474426270e-01,-1.199999973177909851e-01,3.745390810379888080e+01
-1.999999880790710449e-01,3.199999928474426270e-01,-3.999999910593032837e-02,8.405812063910371990e+01
-1.999999880790710449e-01,3.199999928474426270e-01,3.999999910593032837e-02,1.038907990440003175e+02
-1.999999880790710449e-01,3.199999928474426270e-01,1.199999973177909851e-01,1.585677197682611848e+02
-1.999999880790710449e-01,3.199999928474426270e-01,1.999999880790710449e-01,1.650347915707542654e+02
-1.999999880790710449e-01,3.199999928474426270e-01,2.800000011920928955e-01,1.356539685487876454e+02
-1.999999880790710449e-01,3.199999928474426270e-01,3.599999845027923584e-01,9.476598447280797188e+01
-1.999999880790710449e-01,3.199999928474426270e-01,4.399999678134918213e-01,4.702827653046779233e+01
-1.999999880790710449e-01,3.199999928474426270e-01,5.199999809265136719e-01,1.118556067697844547e+01
-1.999999880790710449e-01,3.199999928474426270e-01,6.000000238418579102e-01,7.241006601458312153e-02
-1.999999880790710449e-01,4.000000357627868652e-01,-1.999999880790710449e-01,2.951819632661304045e-03
-1.999999880790710449e-01,4.000000357627868652e-01,-1.199999973177909851e-01,9.765970516104093946e+00
-1.999999880790710449e-01,4.000000357627868652e-01,-3.999999910593032837e-02,4.755445535254469291e+01
-1.999999880790710449e-01,4.000000357627868652e-01,3.999999910593032837e-02,1.118623610868558842e+02
-1.999999880790710449e-01,4.000000357627868652e-01,1.199999973177909851e-01,1.479853083650965289e+02
-1.999999880790710449e-01,4.000000357627868652e-01,1.999999880790710449e-01,1.386447656012733489e+02
-1.999999880790710449e-01,4.000000357627868652e-01,2.800000011920928955e-01,1.079510527753404716e+02
-1.999999880790710449e-01,4.000000357627868652e-01,3.599999845027923584e-01,6.755532385649894422e+01
-1.999999880790710449e-01,4.000000357627868652e-01,4.399999678134918213e-01,2.535411936876686667e+01
-1.999999880790710449e-01,4.000000357627868652e-01,5.199999809265136719e-01,6.877341394407995301e-01
-1.999999880790710449e-01,4.799999594688415527e-01,-3.999999910593032837e-02,2.562454372680120773e+00
-1.999999880790710449e-01,4.799999594688415527e-01,3.999999910593032837e-02,2.486459172586463495e+01
-1.999999880790710449e-01,4.799999594688415527e-01,1.199999973177909851e-01,5.025511431796654449e+01
-1.999999880790710449e-01,4.799999594688415527e-01,1.999999880790710449e-01,6.067634781321820725e+01
-1.999999880790710449e-01,4.799999594688415527e-01,2.800000011920928955e-01,3.624594990508474268e+01
-1.999999880790710449e-01,4.799999594688415527e-01,3.599999845027923584e-01,8.124380532895276730e+00
-1.999999880790710449e-01,4.799999594688415527e-01,4.399999678134918213e-01,5.938880715462659110e-02
-1.200000047683715820e-01,-5.600000023841857910e-01,3.999999910593032837e-02,5.386097264943155993e-01
-1.200000047683715820e-01,-5.600000023841857910e-01,1.199999973177909851e-01,2.922345330249054740e+00
-1.200000047683715820e-01,-5.600000023841857910e-01,1.999999880790710449e-01,5.602028264787828782e+00
-1.200000047683715820e-01,-5.600000023841857910e-01,2.800000011920928955e-01,1.440255420438429024e+00
-1.200000047683715820e-01,-5.600000023841857910e-01,3.599999845027923584e-01,1.266268581996113189e-02
-1.200000047683715820e-01,-4.799999892711639404e-01,-1.199999973177909851e-01,3.273350790304970781e-01
-1.200000047683715820e-01,-4.799999892711639404e-01,-3.999999910593032837e-02,1.788960883451942152e+01
-1.200000047683715820e-01,-4.799999892711639404e-01,3.999999910593032837e-02,5.157831247270553376e+01
-1.200000047683715820e-01,-4.799999892711639404e-01,1.199999973177909851e-01,7.774145554285027515e+01
-1.200000047683715820e-01,-4.799999892711639404e-01,1.999999880790710449e-01,7.551672301600767412e+01
-1.200000047683715820e-01,-4.799999892711639404e-01,2.800000011920928955e-01,6.176168689012020963e+01
-1.200000047683715820e-01,-4.799999892711639404e-01,3.599999845027923584e-01,2.551210691154333787e+01
-1.200000047683715820e-01,-4.799999892711639404e-01,4.399999678134918213e-01,5.754662027727027507e+00
-1.200000047683715820e-01,-4.799999892711639404e-01,5.199999809265136719e-01,5.810646240581145974e-04
-1.200000047683715820e-01,-3.999999761581420898e-01,-1.999999880790710449e-01,1.263574486912512063e+00
-1.200000047683715820e-01,-3.999999761581420898e-01,-1.199999973177909851e-01,2.041490020584591036e+01
-1.200000047683715820e-01,-3.999999761581420898e-01,-3.999999910593032837e-02,7.025193287654022356e+01
-1.200000047683715820e-01,-3.999999761581420898e-01,3.999999910593032837e-02,1.057104180139831584e+02
-1.200000047683715820e-01,-3.999999761581420898e-01,1.199999973177909851e-01,1.357672347763290475e+02
-1.200000047683715820e-01,-3.999999761581420898e-01,1.999999880790710449e-01,1.290110001797413304e+02
-1.200000047683715820e-01,-3.999999761581420898e-01,2.800000011920928955e-01,1.208831664485195319e+02
-1.200000047683715820e-01,-3.999999761581420898e-01,3.599999845027923584e-01,7.557137248306136712e+01
-1.200000047683715820e-01,-3.999999761581420898e-01,4.399999678134918213e-01,4.183466624736248463e+01
-1.200000047683715820e-01,-3.999999761581420898e-01,5.199999809265136719e-01,6.032420092978054704e+00
-1.200000047683715820e-01,-3.999999761581420898e-01,6.000000238418579102e-01,7.393769514521166680e-03
-1.200000047683715820e-01,-3.199999928474426270e-01,-2.800000011920928955e-01,3.986929211937648709e-01
-1.200000047683715820e-01,-3.199999928474426270e-01,-1.999999880790710449e-01,8.368020287873418894e+00
-1.200000047683715820e-01,-3.199999928474426270e-01,-1.199999973177909851e-01,4.405681342131724421e+01
-1.200000047683715820e-01,-3.199999928474426270e-01,-3.999999910593032837e-02,7.705377812330777942e+01
-1.200000047683715820e-01,-3.199999928474426270e-01,3.999999910593032837e-02,9.336318257531527820e+01
-1.200000047683715820e-01,-3.199999928474426270e-01,1.199999973177909851e-01,1.101771804670407136e+02
-1.200000047683715820e-01,-3.199999928474426270e-01,1.999999880790710449e-01,1.172179559608724304e+02
-1.200000047683715820e-01,-3.199999928474426270e-01,2.800000011920928955e-01,1.181604261890594643e+02
-1.200000047683715820e-01,-3.199999928474426270e-01,3.599999845027923584e-01,8.790295033697630345e+01
-1.200000047683715820e-01,-3.199999928474426270e-01,4.399999678134918213e-01,5.718408487067171819e+01
-1.200000047683715820e-01,-3.199999928474426270e-01,5.199999809265136719e-01,1.943602510128490479e+01
-1.200000047683715820e-01,-3.199999928474426270e-01,6.000000238418579102e-01,1.757702743789150590e+00
-1.200000047683715820e-01,-2.400000095367431641e-01,-3.599999845027923584e-01,2.938522879689141446e-07
-1.200000047683715820e-01,-2.400000095367431641e-01,-2.800000011920928955e-01,1.057866396390843677e+00
-1.200000047683715820e-01,-2.400000095367431641e-01,-1.999999880790710449e-01,1.182142855035042217e+01
-1.200000047683715820e-01,-2.400000095367431641e-01,-1.199999973177909851e-01,3.331485070054753805e+01
-1.200000047683715820e-01,-2.400000095367431641e-01,-3.999999910593032837e-02,4.792786362271087341e+01
-1.200000047683715820e-01,-2.400000095367431641e-01,3.999999910593032837e-02,5.959691339137717847e+01
-1.200000047683715820e-01,-2.400000095367431641e-01,1.199999973177909851e-01,5.422021912844732583e+01
-1.200000047683715820e-01,-2.400000095367431641e-01,1.999999880790710449e-01,5.493969440486352340e+01
-1.200000047683715820e-01,-2.400000095367431641e-01,2.800000011920928955e-01,6.437162377293948623e+01
-1.200000047683715820e-01,-2.400000095367431641e-01,3.599999845027923584e-01,5.959520745520055129e+01
-1.200000047683715820e-01,-2.400000095367431641e-01,4.399999678134918213e-01,4.129029407881271396e+01
-1.200000047683715820e-01,-2.400000095367431641e-01,5.199999809265136719e-01,1.611440040845263511e+01
-1.200000047683715820e-01,-2.400000095367431641e-01,6.000000238418579102e-01,3.673065315386730756e+00
-1.200000047683715820e-01,-2.400000095367431641e-01,6.800000071525573730e-01,2.030410284360517278e-02
-1.200000047683715820e-01,-1.600000262260437012e-01,-3.599999845027923584e-01,8.009746060493500713e-03
-1.200000047683715820e-01,-1.600000262260437012e-01,-2.800000011920928955e-01,1.986789144020144393e+00
-1.200000047683715820e-01,-1.600000262260437012e-01,-1.999999880790710449e-01,6.792427470718809701e+00
-1.200000047683715820e-01,-1.600000262260437012e-01,-1.199999973177909851e-01,1.390753888549138750e+01
-1.200000047683715820e-01,-1.600000262260437012e-01,-3.999999910593032837e-02,1.455761297543503652e+01
-1.200000047683715820e-01,-1.600000262260437012e-01,3.999999910593032837e-02,1.341744755631373742e+01
-1.200000047683715820e-01,-1.600000262260437012e-01,1.199999973177909851e-01,1.429091002129376164e+01
-1.200000047683715820e-01,-1.600000262260437012e-01,1.999999880790710449e-01,1.562657539564916931e+01
-1.200000047683715820e-01,-1.600000262260437012e-01,2.800000011920928955e-01,2.041158255671170707e+01
-1.200000047683715820e-01,-1.600000262260437012e-01,3.599999845027923584e-01,2.179327845313539314e+01
-1.200000047683715820e-01,-1.600000262260437012e-01,4.399999678134918213e-01,1.791208520486210531e+01
-1.200000047683715820e-01,-1.600000262260437012e-01,5.199999809265136719e-01,1.056098471254306226e+01
-1.200000047683715820e-01,-1.600000262260437012e-01,6.000000238418579102e-01,2.868227935101222759e+00
-1.200000047683715820e-01,-1.600000262260437012e-01,6.800000071525573730e-01,7.679892957625679417e-02
-1.200000047683715820e-01,-7.999998331069946289e-02,-3.599999845027923584e-01,4.619945166979820897e-03
-1.200000047683715820e-01,-7.999998331069946289e-02,-2.800000011920928955e-01,3.519789966712498219e-01
-1.200000047683715820e-01,-7.999998331069946289e-02,-1.999999880790710449e-01,1.322139176673913230e+00
-1.200000047683715820e-01,-7.999998331069946289e-02,-1.199999973177909851e-01,2.358341051466983807e+00
-1.200000047683715820e-01,-7.999998331069946289e-02,-3.999999910593032837e-02,2.373898007475021554e+00
-1.200000047683715820e-01,-7.999998331069946289e-02,3.999999910593032837e-02,1.903188559761514131e+00
-1.200000047683715820e-01,-7.999998331069946289e-02,1.199999973177909851e-01,1.716574721930022918e+00
-1.200000047683715820e-01,-7.999998331069946289e-02,1.999999880790710449e-01,1.859987833712974936e+00
-1.200000047683715820e-01,-7.999998331069946289e-02,2.800000011920928955e-01,2.534484540710510103e+00
-1.200000047683715820e-01,-7.999998331069946289e-02,3.599999845027923584e-01,3.211033288910821515e+00
-1.200000047683715820e-01,-7.999998331069946289e-02,4.399999678134918213e-01,3.198909901392013033e+00
-1.200000047683715820e-01,-7.999998331069946289e-02,5.199999809265136719e-01,1.983330160057353631e+00
-1.200000047683715820e-01,-7.999998331069946289e-02,6.000000238418579102e-01,4.780095259194466761e-01
-1.200000047683715820e-01,-7.999998331069946289e-02,6.800000071525573730e-01,2.452474063674052115e-02
-1.200000047683715820e-01,0.000000000000000000e+00,-3.599999845027923584e-01,1.426587151204085975e-04
-1.200000047683715820e-01,0.000000000000000000e+00,-2.800000011920928955e-01,6.634298615713895078e-03
-1.200000047683715820e-01,0.000000000000000000e+00,-1.999999880790710449e-01,2.465238139379412677e-02
-1.200000047683715820e-01,0.000000000000000000e+00,-1.199999973177909851e-01,5.142435581370445596e-02
-1.200000047683715820e-01,0.000000000000000000e+00,-3.999999910593032837e-02,4.489127152871834336e-02
-1.200000047683715820e-01,0.000000000000000000e+00,3.999999910593032837e-02,3.704917735459527239e-02
-1.200000047683715820e-01,0.000000000000000000e+00,1.199999973177909851e-01,2.992142200001306901e-02
-1.200000047683715820e-01,0.000000000000000000e+00,1.999999880790710449e-01,3.466250231184796193e-02
-1.200000047683715820e-01,0.000000000000000000e+00,2.800000011920928955e-01,4.265663409591705785e-02
-1.200000047683715820e-01,0.000000000000000000e+00,3.599999845027923584e-01,4.923930309164516878e-02
-1.200000047683715820e-01,0.000000000000000000e+00,4.399999678134918213e-01,5.670959264999484578e-02
-1.200000047683715820e-01,0.000000000000000000e+00,5.199999809265136719e-01,3.400382764114825984e-02
-1.200000047683715820e-01,0.000000000000000000e+00,6.000000238418579102e-01,9.322952311642884043e-03
-1.200000047683715820e-01,0.000000000000000000e+00,6.800000071525573730e-01,5.526652759932019609e-04
-1.200000047683715820e-01,7.999998331069946289e-02,-3.599999845027923584e-01,4.508424364519647565e-03
-1.200000047683715820e-01,7.999998331069946289e-02,-2.800000011920928955e-01,2.016027554225510998e-01
-1.200000047683715820e-01,7.999998331069946289e-02,-1.999999880790710449e-01,1.174867252136772677e+00
-1.200000047683715820e-01,7.999998331069946289e-02,-1.199999973177909851e-01,2.001781173973566030e+00
-1.200000047683715820e-01,7.999998331069946289e-02,-3.999999910593032837e-02,2.259697606307808471e+00
-1.200000047683715820e-01,7.999998331069946289e-02,3.999999910593032837e-02,1.769438700308542778e+00
-1.200000047683715820e-01,7.999998331069946289e-02,1.199999973177909851e-01,1.586042502755939054e+00
-1.200000047683715820e-01,7.999998331069946289e-02,1.999999880790710449e-01,1.781211023684413419e+00
-1.200000047683715820e-01,7.999998331069946289e-02,2.800000011920928955e-01,2.304986740415602586e+00
-1.200000047683715820e-01,7.999998331069946289e-02,3.599999845027923584e-01,3.263978472826818855e+00
-1.200000047683715820e-01,7.999998331069946289e-02,4.399999678134918213e-01,2.741319797153147775e+00
-1.200000047683715820e-01,7.999998331069946289e-02,5.199999809265136719e-01,1.781071135264890914e+00
-1.200000047683715820e-01,7.999998331069946289e-02,6.000000238418579102e-01,4.455265360663663854e-01
-1.200000047683715820e-01,7.999998331069946289e-02,6.800000071525573730e-01,1.948697535132743949e-02
-1.200000047683715820e-01,1.600000262260437012e-01,-3.599999845027923584e-01,8.782652339927412774e-03
-1.200000047683715820e-01,1.600000262260437012e-01,-2.800000011920928955e-01,1.776394894759399934e+00
-1.200000047683715820e-01,1.600000262260437012e-01,-1.999999880790710449e-01,6.667204812590596497e+00
-1.200000047683715820e-01,1.600000262260437012e-01,-1.199999973177909851e-01,1.320347902362477477e+01
-1.200000047683715820e-01,1.600000262260437012e-01,-3.999999910593032837e-02,1.428822052695327827e+01
-1.200000047683715820e-01,1.600000262260437012e-01,3.999999910593032837e-02,1.345089845211829171e+01
-1.200000047683715820e-01,1.600000262260437012e-01,1.199999973177909851e-01,1.689252054701837835e+01
-1.200000047683715820e-01,1.600000262260437012e-01,1.999999880790710449e-01,1.557647839781101595e+01
-1.200000047683715820e-01,1.600000262260437012e-01,2.800000011920928955e-01,2.211790223837450853e+01
-1.200000047683715820e-01,1.600000262260437012e-01,3.599999845027923584e-01,2.198596658914813773e+01
-1.200000047683715820e-01,1.600000262260437012e-01,4.399999678134918213e-01,1.896305264327507345e+01
-1.200000047683715820e-01,1.600000262260437012e-01,5.199999809265136719e-01,9.593450281567111659e+00
-1.200000047683715820e-01,1.600000262260437012e-01,6.000000238418579102e-01,2.449302824714528093e+00
-1.200000047683715820e-01,1.600000262260437012e-01,6.800000071525573730e-01,7.130644298401185577e-02
-1.200000047683715820e-01,2.399999499320983887e-01,-3.599999845027923584e-01,4.725989773514127194e-06
-1.200000047683715820e-01,2.399999499320983887e-01,-2.800000011920928955e-01,1.173303890567927166e+00
-1.200000047683715820e-01,2.399999499320983887e-01,-1.999999880790710449e-01,1.180779097917096010e+01
-1.200000047683715820e-01,2.399999499320983887e-01,-1.199999973177909851e-01,3.035128250533069405e+01
-1.200000047683715820e-01,2.399999499320983887e-01,-3.999999910593032837e-02,4.249956148436007908e+01
-1.200000047683715820e-01,2.399999499320983887e-01,3.999999910593032837e-02,5.524275264421085296e+01
-1.200000047683715820e-01,2.399999499320983887e-01,1.199999973177909851e-01,5.496929702603707568e+01
-1.200000047683715820e-01,2.399999499320983887e-01,1.999999880790710449e-01,5.269004066309952350e+01
-1.200000047683715820e-01,2.399999499320983887e-01,2.800000011920928955e-01,6.227923354290024349e+01
-1.200000047683715820e-01,2.399999499320983887e-01,3.599999845027923584e-01,5.997218628945734764e+01
-1.200000047683715820e-01,2.399999499320983887e-01,4.399999678134918213e-01,3.758952672376316428e+01
-1.200000047683715820e-01,2.399999499320983887e-01,5.199999809265136719e-01,1.802445879138086937e+01
-1.200000047683715820e-01,2.399999499320983887e-01,6.000000238418579102e-01,3.314904056429058166e+00
-1.200000047683715820e-01,2.399999499320983887e-01,6.800000071525573730e-01,2.504798880159416971e-02
-1.200000047683715820e-01,3.199999928474426270e-01,-2.800000011920928955e-01,3.740134373872657236e-01
-1.200000047683715820e-01,3.199999928474426270e-01,-1.999999880790710449e-01,7.308666982964282077e+00
-1.200000047683715820e-01,3.199999928474426270e-01,-1.199999973177909851e-01,4.305624218078891374e+01
-1.200000047683715820e-01,3.199999928474426270e-01,-3.999999910593032837e-02,7.864576702035769529e+01
-1.200000047683715820e-01,3.199999928474426270e-01,3.999999910593032837e-02,1.057224124644653642e+02
-1.200000047683715820e-01,3.199999928474426270e-01,1.199999973177909851e-01,1.086013516785787232e+02
-1.200000047683715820e-01,3.199999928474426270e-01,1.999999880790710449e-01,1.095691398510305561e+02
-1.200000047683715820e-01,3.199999928474426270e-01,2.800000011920928955e-01,1.125580921120694313e+02
-1.200000047683715820e-01,3.199999928474426270e-01,3.599999845027923584e-01,9.720756264659867441e+01
-1.200000047683715820e-01,3.199999928474426270e-01,4.399999678134918213e-01,5.576204160002399846e+01
-1.200000047683715820e-01,3.199999928474426270e-01,5.199999809265136719e-01,2.313234247553261724e+01
-1.200000047683715820e-01,3.199999928474426270e-01,6.000000238418579102e-01,1.383200575110487440e+00
-1.200000047683715820e-01,4.000000357627868652e-01,-1.999999880790710449e-01,1.114468618996533600e+00
-1.200000047683715820e-01,4.000000357627868652e-01,-1.199999973177909851e-01,2.312243250714220721e+01
-1.200000047683715820e-01,4.000000357627868652e-01,-3.999999910593032837e-02,7.487999225631378408e+01
-1.200000047683715820e-01,4.000000357627868652e-01,3.999999910593032837e-02,1.086438612277243010e+02
-1.200000047683715820e-01,4.000000357627868652e-01,1.199999973177909851e-01,1.216057296016585383e+02
-1.200000047683715820e-01,4.000000357627868652e-01,1.999999880790710449e-01,1.219561341820630957e+02
-1.200000047683715820e-01,4.000000357627868652e-01,2.800000011920928955e-01,1.207784695747956079e+02
-1.200000047683715820e-01,4.000000357627868652e-01,3.599999845027923584e-01,7.939231907446111336e+01
-1.200000047683715820e-01,4.000000357627868652e-01,4.399999678134918213e-01,3.605493795054787398e+01
-1.200000047683715820e-01,4.000000357627868652e-01,5.199999809265136719e-01,8.156252776520876324e+00
-1.200000047683715820e-01,4.000000357627868652e-01,6.000000238418579102e-01,3.531064693084267920e-03
-1.200000047683715820e-01,4.799999594688415527e-01,-1.199999973177909851e-01,4.973510629021848373e-01
-1.200000047683715820e-01,4.799999594688415527e-01,-3.999999910593032837e-02,1.777370105076651186e+01
-1.200000047683715820e-01,4.799999594688415527e-01,3.999999910593032837e-02,4.876851987706937308e+01
-1.200000047683715820e-01,4.799999594688415527e-01,1.199999973177909851e-01,7.780557361689983509e+01
-1.200000047683715820e-01,4.799999594688415527e-01,1.999999880790710449e-01,8.104482242069137499e+01
-1.200000047683715820e-01,4.799999594688415527e-01,2.800000011920928955e-01,6.044928638567749601e+01
-1.200000047683715820e-01,4.799999594688415527e-01,3.599999845027923584e-01,2.764489906609133385e+01
-1.200000047683715820e-01,4.799999594688415527e-01,4.399999678134918213e-01,5.371793002499898328e+00
-1.200000047683715820e-01,4.799999594688415527e-01,5.199999809265136719e-01,3.158612139321747593e-03
-1.200000047683715820e-01,5.600000023841857910e-01,3.999999910593032837e-02,5.555604009509210739e-01
-1.200000047683715820e-01,5.600000023841857910e-01,1.199999973177909851e-01,4.016306864844205293e+00
-1.200000047683715820e-01,5.600000023841857910e-01,1.999999880790710449e-01,4.504650105352490108e+00
-1.200000047683715820e-01,5.600000023841857910e-01,2.800000011920928955e-01,1.468177004334245472e+00
-1.200000047683715820e-01,5.600000023841857910e-01,3.599999845027923584e-01,8.304543922245366180e-03
-3.999996185302734375e-02,-5.600000023841857910e-01,-3.999999910593032837e-02,1.642315615641991300e-01
-3.999996185302734375e-02,-5.600000023841857910e-01,3.999999910593032837e-02,2.508773586439897674e+00
-3.999996185302734375e-02,-5.600000023841857910e-01,1.199999973177909851e-01,5.204249241664220094e+00
-3.999996185302734375e-02,-5.600000023841857910e-01,1.999999880790710449e-01,5.959314033001752442e+00
-3.999996185302734375e-02,-5.600000023841857910e-01,2.800000011920928955e-01,3.310570821501717109e+00
-3.999996185302734375e-02,-5.600000023841857910e-01,3.599999845027923584e-01,6.244977550309673830e-01
-3.999996185302734375e-02,-5.600000023841857910e-01,4.399999678134918213e-01,5.285629311964273663e-04
-3.999996185302734375e-02,-4.799999892711639404e-01,-1.999999880790710449e-01,7.256270252828241410e-03
-3.999996185302734375e-02,-4.799999892711639404e-01,-1.199999973177909851e-01,2.018833097064685944e+00
-3.999996185302734375e-02,-4.799999892711639404e-01,-3.999999910593032837e-02,1.361928608932816509e+01
-3.999996185302734375e-02,-4.799999892711639404e-01,3.999999910593032837e-02,2.754586550374447995e+01
-3.999996185302734375e-02,-4.799999892711639404e-01,1.199999973177909851e-01,3.838899586012075815e+01
-3.999996185302734375e-02,-4.799999892711639404e-01,1.999999880790710449e-01,3.605804896981572227e+01
-3.999996185302734375e-02,-4.799999892711639404e-01,2.800000011920928955e-01,2.755750620389548189e+01
-3.999996185302734375e-02,-4.799999892711639404e-01,3.599999845027923584e-01,2.122161130575952726e+01
-3.999996185302734375e-02,-4.799999892711639404e-01,4.399999678134918213e-01,6.572682806745747008e+00
-3.999996185302734375e-02,-4.799999892711639404e-01,5.199999809265136719e-01,2.491961095706417550e-01
-3.999996185302734375e-02,-3.999999761581420898e-01,-2.800000011920928955e-01,1.267126903089403796e-02
-3.999996185302734375e-02,-3.999999761581420898e-01,-1.999999880790710449e-01,1.896674346594791283e+00
-3.999996185302734375e-02,-3.999999761581420898e-01,-1.199999973177909851e-01,1.436810528632523720e+01
-3.999996185302734375e-02,-3.999999761581420898e-01,-3.999999910593032837e-02,3.545832975178343816e+01
-3.999996185302734375e-02,-3.999999761581420898e-01,3.999999910593032837e-02,4.344623043143145225e+01
-3.999996185302734375e-02,-3.999999761581420898e-01,1.199999973177909851e-01,4.827744829580572627e+01
-3.999996185302734375e-02,-3.999999761581420898e-01,1.999999880790710449e-01,4.980590098850973391e+01
-3.999996185302734375e-02,-3.999999761581420898e-01,2.800000011920928955e-01,5.046832658534464855e+01
-3.999996185302734375e-02,-3.999999761581420898e-01,3.599999845027923584e-01,3.080332914351497564e+01
-3.999996185302734375e-02,-3.999999761581420898e-01,4.399999678134918213e-01,1.815709036999712467e+01
-3.999996185302734375e-02,-3.999999761581420898e-01,5.199999809265136719e-01,5.060765462466974896e+00
-3.999996185302734375e-02,-3.999999761581420898e-01,6.000000238418579102e-01,2.712906537490338277e-01
-3.999996185302734375e-02,-3.199999928474426270e-01,-2.800000011920928955e-01,7.884573142048428851e-01
-3.999996185302734375e-02,-3.199999928474426270e-01,-1.999999880790710449e-01,8.797015298167082165e+00
-3.999996185302734375e-02,-3.199999928474426270e-01,-1.199999973177909851e-01,2.103112171152480769e+01
-3.999996185302734375e-02,-3.199999928474426270e-01,-3.999999910593032837e-02,3.237915462589910476e+01
-3.999996185302734375e-02,-3.199999928474426270e-01,3.999999910593032837e-02,3.756026793468723213e+01
-3.999996185302734375e-02,-3.199999928474426270e-01,1.199999973177909851e-01,4.031127515986472076e+01
-3.999996185302734375e-02,-3.199999928474426270e-01,1.999999880790710449e-01,4.209286762228242651e+01
-3.999996185302734375e-02,-3.199999928474426270e-01,2.800000011920928955e-01,4.208060207341556946e+01
-3.999996185302734375e-02,-3.199999928474426270e-01,3.599999845027923584e-01,3.843209389112571728e+01
-3.999996185302734375e-02,-3.199999928474426270e-01,4.399999678134918213e-01,2.926734189936418673e+01
-3.999996185302734375e-02,-3.199999928474426270e-01,5.199999809265136719e-01,1.379948055710159061e+01
-3.999996185302734375e-02,-3.199999928474426270e-01,6.000000238418579102e-01,2.179324787191517121e+00
-3.999996185302734375e-02,-3.199999928474426270e-01,6.800000071525573730e-01,4.695639902064781962e-03
-3.999996185302734375e-02,-2.400000095367431641e-01,-3.599999845027923584e-01,1.949121287788355833e-02
-3.999996185302734375e-02,-2.400000095367431641e-01,-2.800000011920928955e-01,2.084049615483802409e+00
-3.999996185302734375e-02,-2.400000095367431641e-01,-1.999999880790710449e-01,1.085414620781142503e+01
-3.999996185302734375e-02,-2.400000095367431641e-01,-1.199999973177909851e-01,1.662448028438204872e+01
-3.999996185302734375e-02,-2.400000095367431641e-01,-3.999999910593032837e-02,1.978400136750004989e+01
-3.999996185302734375e-02,-2.400000095367431641e-01,3.999999910593032837e-02,1.727429484721355735e+01
-3.999996185302734375e-02,-2.400000095367431641e-01,1.199999973177909851e-01,1.717658040993351420e+01
-3.999996185302734375e-02,-2.400000095367431641e-01,1.999999880790710449e-01,1.761283722025037690e+01
-3.999996185302734375e-02,-2.400000095367431641e-01,2.800000011920928955e-01,2.421919408305634391e+01
-3.999996185302734375e-02,-2.400000095367431641e-01,3.599999845027923584e-01,2.632626329880147864e+01
-3.999996185302734375e-02,-2.400000095367431641e-01,4.399999678134918213e-01,2.128611784395784667e+01
-3.999996185302734375e-02,-2.400000095367431641e-01,5.199999809265136719e-01,1.291550559104086560e+01
-3.999996185302734375e-02,-2.400000095367431641e-01,6.000000238418579102e-01,2.945723433328514052e+00
-3.999996185302734375e-02,-2.400000095367431641e-01,6.800000071525573730e-01,1.403855451523781106e-01
-3.999996185302734375e-02,-1.600000262260437012e-01,-3.599999845027923584e-01,7.207914182643149203e-02
-3.999996185302734375e-02,-1.600000262260437012e-01,-2.800000011920928955e-01,2.126299844147106821e+00
-3.999996185302734375e-02,-1.600000262260437012e-01,-1.999999880790710449e-01,8.215709280785468138e+00
-3.999996185302734375e-02,-1.600000262260437012e-01,-1.199999973177909851e-01,1.570505176585205120e+01
-3.999996185302734375e-02,-1.600000262260437012e-01,-3.999999910593032837e-02,1.274029586216339993e+01
-3.999996185302734375e-02,-1.600000262260437012e-01,3.999999910593032837e-02,8.470236776681613122e+00
-3.999996185302734375e-02,-1.600000262260437012e-01,1.199999973177909851e-01,6.834145214216515996e+00
-3.999996185302734375e-02,-1.600000262260437012e-01,1.999999880790710449e-01,8.347492850430199951e+00
-3.999996185302734375e-02,-1.600000262260437012e-01,2.800000011920928955e-01,1.062010482338522621e+01
-3.999996185302734375e-02,-1.600000262260437012e-01,3.599999845027923584e-01,1.283321731306345903e+01
-3.999996185302734375e-02,-1.600000262260437012e-01,4.399999678134918213e-01,1.575597858923348760e+01
-3.999996185302734375e-02,-1.600000262260437012e-01,5.199999809265136719e-01,1.106183567212157648e+01
-3.999996185302734375e-02,-1.600000262260437012e-01,6.000000238418579102e-01,3.538273214887861950e+00
-3.999996185302734375e-02,-1.600000262260437012e-01,6.800000071525573730e-01,2.010813249548030479e-01
-3.999996185302734375e-02,-7.999998331069946289e-02,-3.599999845027923584e-01,3.949819327374036459e-02
-3.999996185302734375e-02,-7.999998331069946289e-02,-2.800000011920928955e-01,7.518290709453386844e-01
-3.999996185302734375e-02,-7.999998331069946289e-02,-1.999999880790710449e-01,5.174577606115306594e+00
-3.999996185302734375e-02,-7.999998331069946289e-02,-1.199999973177909851e-01,1.078509629211168175e+01
-3.999996185302734375e-02,-7.999998331069946289e-02,-3.999999910593032837e-02,8.111633123180073568e+00
-3.999996185302734375e-02,-7.999998331069946289e-02,3.999999910593032837e-02,3.182205116476370499e+00
-3.999996185302734375e-02,-7.999998331069946289e-02,1.199999973177909851e-01,2.296910612089098525e+00
-3.999996185302734375e-02,-7.999998331069946289e-02,1.999999880790710449e-01,2.828693442771428757e+00
-3.999996185302734375e-02,-7.999998331069946289e-02,2.800000011920928955e-01,3.847609282834798972e+00
-3.999996185302734375e-02,-7.999998331069946289e-02,3.599999845027923584e-01,6.626800821783178641e+00
-3.999996185302734375e-02,-7.999998331069946289e-02,4.399999678134918213e-01,1.017399838059893291e+01
-3.999996185302734375e-02,-7.999998331069946289e-02,5.199999809265136719e-01,6.326700282342866188e+00
-3.999996185302734375e-02,-7.999998331069946289e-02,6.000000238418579102e-01,2.212290722699736811e+00
-3.999996185302734375e-02,-7.999998331069946289e-02,6.800000071525573730e-01,9.714475873849912069e-02
-3.999996185302734375e-02,0.000000000000000000e+00,-3.599999845027923584e-01,9.973360778753467219e-04
-3.999996185302734375e-02,0.000000000000000000e+00,-3.599999845027923584e-01,1.769615304272443386e-04
-3.999996185302734375e-02,0.000000000000000000e+00,-2.800000011920928955e-01,4.036814375419688072e-02
-3.999996185302734375e-02,0.000000000000000000e+00,-1.999999880790710449e-01,2.165496754932742518e-01
-3.999996185302734375e-02,0.000000000000000000e+00,-1.199999973177909851e-01,4.188936509895423987e-01
-3.999996185302734375e-02,0.000000000000000000e+00,-3.999999910593032837e-02,2.769304351500735950e-01
-3.999996185302734375e-02,0.000000000000000000e+00,3.999999910593032837e-02,1.274461375482316416e-01
-3.999996185302734375e-02,0.000000000000000000e+00,1.199999973177909851e-01,7.008057901594134942e-02
-3.999996185302734375e-02,0.000000000000000000e+00,1.999999880790710449e-01,7.993060537355711759e-02
-3.999996185302734375e-02,0.000000000000000000e+00,2.800000011920928955e-01,1.146152622813883803e-01
-3.999996185302734375e-02,0.000000000000000000e+00,3.599999845027923584e-01,2.225445503196459007e-01
-3.999996185302734375e-02,0.000000000000000000e+00,4.399999678134918213e-01,3.508083093346795467e-01
-3.999996185302734375e-02,0.000000000000000000e+00,5.199999809265136719e-01,2.767818166186974405e-01
-3.999996185302734375e-02,0.000000000000000000e+00,6.000000238418579102e-01,8.573634284319696375e-02
-3.999996185302734375e-02,0.000000000000000000e+00,6.800000071525573730e-01,3.228786789812938991e-03
-3.999996185302734375e-02,0.000000000000000000e+00,7.599999904632568359e-01,1.361808985737436757e-02
-3.999996185302734375e-02,7.999998331069946289e-02,-3.599999845027923584e-01,2.535578820196811994e-02
-3.999996185302734375e-02,7.999998331069946289e-02,-3.599999845027923584e-01,3.150412606150450323e-02
-3.999996185302734375e-02,7.999998331069946289e-02,-3.599999845027923584e-01,6.561826015107414221e-03
-3.999996185302734375e-02,7.999998331069946289e-02,-2.800000011920928955e-01,8.544404810856049970e-01
-3.999996185302734375e-02,7.999998331069946289e-02,-1.999999880790710449e-01,4.452497140344099158e+00
-3.999996185302734375e-02,7.999998331069946289e-02,-1.199999973177909851e-01,1.058822844716229916e+01
-3.999996185302734375e-02,7.999998331069946289e-02,-3.999999910593032837e-02,7.769392902054957695e+00
-3.999996185302734375e-02,7.999998331069946289e-02,3.999999910593032837e-02,2.973885224443968855e+00
-3.999996185302734375e-02,7.999998331069946289e-02,1.199999973177909851e-01,2.289954211008375040e+00
-3.999996185302734375e-02,7.999998331069946289e-02,1.999999880790710449e-01,2.713483241447336436e+00
-3.999996185302734375e-02,7.999998331069946289e-02,2.800000011920928955e-01,3.681140410563902954e+00
-3.999996185302734375e-02,7.999998331069946289e-02,3.599999845027923584e-01,6.918119591903383103e+00
-3.999996185302734375e-02,7.999998331069946289e-02,4.399999678134918213e-01,8.159516701889828028e+00
-3.999996185302734375e-02,7.999998331069946289e-02,5.199999809265136719e-01,5.484345117223193178e+00
-3.999996185302734375e-02,7.999998331069946289e-02,6.000000238418579102e-01,2.537933813069582101e+00
